ply
format ascii 1.0
element vertex 1274
property float x
property float y
property float z
property uchar red
property uchar green
property uchar blue
end_header
30.7309 -49.3185 -3.52597 255 255 255
22.6156 -37.4398 -2.32605 255 255 255
24.0978 -39.4465 4.63038 255 255 255
26.4318 -42.9308 10.91 255 255 255
15.6801 -29.3283 10.0587 255 255 255
14.8546 -28.3066 11.7559 255 255 255
15.8955 -29.6315 3.88791 255 255 255
26.3409 -42.7262 6.46803 255 255 255
27.0468 -43.9861 3.63728 255 255 255
25.9879 -42.5426 10.9121 255 255 255
15.5108 -29.2952 11.7038 255 255 255
15.9554 -29.8627 10.0773 255 255 255
14.9735 -28.6625 5.95934 255 255 255
26.3035 -43.0916 1.31939 255 255 255
25.6823 -42.1668 13.4968 255 255 255
16.2295 -30.5564 2.77754 255 255 255
25.6369 -42.2559 11.824 255 255 255
15.8395 -29.8546 6.90155 255 255 255
26.8396 -44.1032 12.1868 255 255 255
16.655 -31.0425 -2.16022 255 255 255
24.1679 -40.0708 -3.85247 255 255 255
22.9389 -38.1789 3.15705 255 255 255
25.7168 -42.5078 6.55972 255 255 255
27.0769 -44.4208 2.62654 255 255 255
26.1758 -43.2438 2.76527 255 255 255
26.1873 -43.2782 12.6245 255 255 255
15.7078 -29.9553 12.2745 255 255 255
10.0109 -22.7885 -7.8436 255 255 255
21.4921 -36.1205 -7.5238 255 255 255
21.3571 -35.9552 -6.02595 255 255 255
22.0423 -37.0782 -0.369881 255 255 255
24.9884 -41.6487 -8.30399 255 255 255
21.4609 -36.3075 4.98309 255 255 255
26.0265 -43.3702 0.0171177 255 255 255
24.6376 -41.2201 2.78993 255 255 255
25.2012 -42.0758 -6.42564 255 255 255
22.0921 -37.3932 5.31583 255 255 255
26.2616 -43.8902 -4.99558 255 255 255
22.6414 -38.2565 -3.75088 255 255 255
22.6289 -38.3345 10.2295 255 255 255
14.8778 -29.1321 12.4575 255 255 255
15.7592 -30.3774 2.26745 255 255 255
25.0343 -42.0522 -3.90008 255 255 255
22.7406 -38.6108 7.34326 255 255 255
26.7158 -44.7974 14.5605 255 255 255
29.5539 -49.2094 12.8565 255 255 255
16.6273 -31.7843 12.8565 255 255 255
16.6273 -31.7843 8.7491 255 255 255
9.23427 -21.5905 12.0683 255 255 255
10.2454 -23.4299 0.0895255 255 255 255
24.3415 -41.2433 5.98024 255 255 255
26.318 -44.247 5.71083 255 255 255
26.1764 -44.0713 2.48689 255 255 255
24.9884 -42.4829 6.03966 255 255 255
26.4781 -44.5798 -7.77956 255 255 255
20.9989 -36.118 5.95367 255 255 255
6.32518 -17.5821 4.45336 255 255 255
25.8302 -43.9226 13.2587 255 255 255
17.1991 -32.9298 9.02787 255 255 255
7.01634 -18.8099 -13.0091 255 255 255
19.2266 -33.4538 2.84427 255 255 255
25.1054 -42.7331 3.25565 255 255 255
25.9825 -44.1014 2.84427 255 255 255
25.1054 -42.7331 6.01008 255 255 255
26.3967 -44.8145 -13.0475 255 255 255
19.1227 -33.3295 -8.32092 255 255 255
20.5577 -35.6949 13.0822 255 255 255
10.0066 -23.4287 16.3477 255 255 255
29.9145 -50.5938 -10.7808 255 255 255
20.0301 -34.9431 4.9287 255 255 255
4.68002 -15.4829 -7.92361 255 255 255
20.9106 -36.347 7.41171 255 255 255
26.0297 -45.0057 2.3494 255 255 255
24.6706 -42.6213 8.94225 255 255 255
6.09205 -17.9071 13.7941 255 255 255
27.37 -47.5153 13.8505 255 255 255
28.6902 -49.3285 8.11769 255 255 255
26.0379 -45.3868 2.91295 255 255 255
2.17119 -12.1126 1.95948 255 255 255
24.3305 -42.6801 11.85 255 255 255
15.5849 -31.6431 12.4302 255 255 255
16.172 -32.3833 11.6775 255 255 255
26.7185 -47.0978 0.305106 255 255 255
23.6565 -41.8546 22.2261 255 255 255
30.2714 -52.9756 -1.27675 255 255 255
22.9049 -40.7279 -1.05787 255 255 255
23.1084 -41.1743 -1.05787 255 255 255
23.1084 -41.1743 -11.6459 255 255 255
19.213 -34.5906 11.9893 255 255 255
15.6321 -32.0096 -0.701588 255 255 255
23.0533 -41.3961 -0.698585 255 255 255
23.0046 -41.34 3.80472 255 255 255
24.1795 -43.5192 -0.264157 255 255 255
23.2656 -41.7761 16.837 255 255 255
28.1408 -50.0708 19.1862 255 255 255
31.1636 -54.8775 5.88491 255 255 255
25.6778 -45.7648 6.82951 255 255 255
26.5115 -47.1986 -1.05407 255 255 255
22.9254 -41.3953 -1.02772 255 255 255
22.8562 -41.2446 -1.06899 255 255 255
22.8005 -41.2306 -10.5786 255 255 255
19.3191 -35.0869 -8.9049 255 255 255
23.8619 -41.587 -9.18658 255 255 255
19.4301 -35.5689 0.0993498 255 255 255
23.6206 -42.6115 5.84917 255 255 255
25.267 -45.4787 12.2069 255 255 255
27.211 -48.8579 5.09 255 255 255
4.06177 -15.6084 12.5763 255 255 255
27.276 -48.9255 -8.84675 255 255 255
20.0722 -36.6964 11.9505 255 255 255
27.2687 -48.9195 3.92243 255 255 255
25.4217 -45.636 12.3798 255 255 255
9.87904 -24.3756 5.49926 255 255 255
24.9115 -45.1624 15.0936 255 255 255
27.3846 -49.3565 13.9939 255 255 255
14.6061 -31.3424 -9.72563 255 255 255
23.6168 -41.4771 -12.4743 255 255 255
18.4478 -34.1143 3.45511 255 255 255
23.763 -43.5465 -11.4421 255 255 255
18.9937 -35.0608 -9.18775 255 255 255
19.6084 -36.118 -12.5308 255 255 255
18.3822 -34.2287 12.8354 255 255 255
27.4016 -49.7145 2.71302 255 255 255
23.8177 -43.7287 12.4417 255 255 255
27.0107 -49.3874 12.9672 255 255 255
25.8133 -47.9194 13.099 255 255 255
10.9851 -26.9635 22.3397 255 255 255
31.6917 -57.8169 22.3397 255 255 255
31.6917 -57.8169 -0.900028 255 255 255
22.41 -41.815 -1.55276 255 255 255
22.1906 -41.6322 -2.02953 255 255 255
21.9053 -41.0488 9.49316 255 255 255
25.3514 -47.4514 -10.9586 255 255 255
18.3691 -35.005 1.39332 255 255 255
23.144 -43.4288 9.79166 255 255 255
25.6921 -48.1807 4.33686 255 255 255
24.1464 -45.3823 12.0377 255 255 255
26.4329 -49.418 0.278611 255 255 255
22.9609 -43.2899 6.37559 255 255 255
24.7865 -46.7262 14.4243 255 255 255
12.788 -29.9857 5.48413 255 255 255
23.9724 -45.4442 8.74195 255 255 255
26.2537 -49.3172 -8.6578 255 255 255
19.6085 -37.4327 11.8832 255 255 255
26.3719 -49.9583 -9.15808 255 255 255
19.0584 -36.5269 12.7812 255 255 255
11.6563 -28.2285 -9.03627 255 255 255
19.0894 -36.5864 -2.42121 255 255 255
21.5884 -41.3569 13.1982 255 255 255
9.55194 -25.4761 12.9173 255 255 255
9.41469 -25.1037 14.2215 255 255 255
8.17938 -23.6165 0.367471 255 255 255
22.8548 -43.5849 8.55692 255 255 255
24.8627 -47.4871 15.1996 255 255 255
26.0559 -50.1605 -3.15109 255 255 255
21.4304 -41.1423 9.07882 255 255 255
24.7478 -47.8171 9.37524 255 255 255
25.2826 -48.5364 14.8566 255 255 255
13.3166 -31.6862 -3.33149 255 255 255
21.1632 -41.0267 -3.38624 255 255 255
21.0773 -40.7431 15.5219 255 255 255
26.3019 -50.7567 9.01895 255 255 255
24.9016 -48.0579 8.58988 255 255 255
24.3503 -47.2464 -11.7404 255 255 255
18.152 -35.5294 5.34342 255 255 255
23.2529 -45.4241 0.0641156 255 255 255
22.2714 -43.3613 0.064477 255 255 255
22.1539 -43.1186 12.2112 255 255 255
25.1377 -48.8662 2.70238 255 255 255
22.6964 -44.3285 -0.611594 255 255 255
21.9939 -42.9995 4.33125 255 255 255
23.3289 -45.5975 -6.14221 255 255 255
20.0657 -39.5071 -8.8772 255 255 255
17.3564 -35.073 10.7517 255 255 255
26.3891 -51.4112 -2.24099 255 255 255
21.1567 -41.7736 -7.21889 255 255 255
19.3369 -38.4329 10.2895 255 255 255
25.3589 -50.1022 9.43962 255 255 255
7.13689 -22.112 14.3741 255 255 255
14.1479 -33.7615 -5.96046 255 255 255
19.515 -39.0234 12.6473 255 255 255
8.50964 -24.8771 -7.70187 255 255 255
19.2067 -38.3285 14.4989 255 255 255
12.3731 -30.9584 0.28184 255 255 255
21.7676 -43.5018 -7.53511 255 255 255
19.2063 -38.4752 5.31244 255 255 255
22.8862 -45.7224 -7.39311 255 255 255
21.4957 -41.8958 -8.1164 255 255 255
18.9626 -38.4201 -12.7962 255 255 255
17.1961 -34.9087 -7.94223 255 255 255
18.5852 -38.0152 6.32195 255 255 255
23.195 -46.6338 -8.8758 255 255 255
18.8715 -38.4258 -8.41358 255 255 255
20.9363 -41.1594 5.94709 255 255 255
23.2326 -46.8258 5.88813 255 255 255
22.9872 -46.2456 15.9386 255 255 255
25.9669 -52.2663 -9.09125 255 255 255
18.7666 -38.4198 -9.09125 255 255 255
18.7666 -38.4198 -7.54487 255 255 255
19.2274 -38.9417 -7.53181 255 255 255
19.1641 -38.8707 5.52299 255 255 255
22.435 -45.5735 -7.38892 255 255 255
19.0955 -39.0798 -8.10393 255 255 255
18.6688 -38.279 -1.21848 255 255 255
20.9625 -42.7089 -12.7902 255 255 255
16.9017 -34.7288 1.61067 255 255 255
22.012 -44.9131 15.9566 255 255 255
25.5824 -52.0292 -12.4634 255 255 255
17.2172 -35.3151 -12.1809 255 255 255
17.3593 -35.6126 6.5217 255 255 255
23.4559 -47.7196 -12.5564 255 255 255
16.8094 -34.7839 12.5345 255 255 255
6.41739 -22.2934 -1.39859 255 255 255
21.0417 -43.2796 15.763 255 255 255
26.097 -53.3996 -7.3151 255 255 255
19.1288 -39.685 -7.36475 255 255 255
19.0961 -39.3389 -7.24096 255 255 255
18.6437 -39.0651 -10.358 255 255 255
18.3328 -38.0957 -13.3754 255 255 255
16.8261 -34.8311 -13.3754 255 255 255
16.8261 -34.8311 -7.11659 255 255 255
19.1784 -39.9682 -7.22905 255 255 255
18.9668 -39.0481 6.84622 255 255 255
23.3972 -48.1711 7.28927 255 255 255
23.3227 -47.9677 -10.4457 255 255 255
17.952 -37.3472 -10.2555 255 255 255
17.4894 -36.7423 -5.90317 255 255 255
19.3155 -39.8688 -4.00897 255 255 255
20.0732 -42.018 -4.1135 255 255 255
19.9878 -41.5087 -4.00897 255 255 255
20.0732 -42.018 -8.20126 255 255 255
18.7585 -39.3628 -8.12573 255 255 255
18.2789 -38.6291 -12.5394 255 255 255
16.9662 -35.513 1.74642 255 255 255
21.7288 -45.2641 12.3944 255 255 255
9.61179 -27.728 -12.7628 255 255 255
16.7884 -35.2676 -8.334 255 255 255
18.0075 -38.2291 5.40782 255 255 255
22.0007 -46.205 -13.0562 255 255 255
16.821 -35.3082 -3.74939 255 255 255
19.8497 -41.667 6.58052 255 255 255
22.931 -48.0447 6.58052 255 255 255
22.931 -48.0447 -2.4128 255 255 255
20.4694 -43.0199 7.08401 255 255 255
23.0191 -48.3058 7.18852 255 255 255
23.1503 -48.4718 -10.6707 255 255 255
17.6447 -37.1555 -10.6948 255 255 255
17.7102 -37.2368 -9.15853 255 255 255
18.2801 -38.8382 -9.20103 255 255 255
18.0391 -38.2505 -3.08352 255 255 255
20.0027 -42.2997 6.15852 255 255 255
22.9122 -48.0518 12.606 255 255 255
10.5777 -29.3352 13.1963 255 255 255
6.41224 -23.2366 1.5867 255 255 255
21.5406 -45.5054 1.58064 255 255 255
21.5222 -45.4879 -8.49463 255 255 255
18.1411 -38.8258 -12.6293 255 255 255
16.4827 -35.2298 -12.7486 255 255 255
16.4139 -35.1444 16.6138 255 255 255
24.64 -52.8951 18.2127 255 255 255
25.6647 -54.8123 18.843 255 255 255
26.4503 -56.1222 3.24178 255 255 255
21.8267 -46.7562 10.0248 255 255 255
23.5742 -50.4464 13.3229 255 255 255
6.84413 -24.4051 13.6956 255 255 255
6.68828 -24.2001 -10.0868 255 255 255
17.5715 -37.701 5.69394 255 255 255
3.08497 -17.0005 12.8408 255 255 255
23.4469 -50.9073 -5.74629 255 255 255
18.8768 -40.8858 17.9152 255 255 255
25.8577 -56.0215 -10.1943 255 255 255
17.0522 -37.623 1.24364 255 255 255
20.7849 -45.9267 3.92273 255 255 255
20.9706 -46.4367 16.6215 255 255 255
24.584 -54.5992 -11.0544 255 255 255
17.1581 -38.2439 1.32298 255 255 255
20.7343 -45.9898 -8.67031 255 255 255
17.4266 -39.2906 14.696 255 255 255
10.8364 -32.0697 5.75888 255 255 255
21.8608 -48.9624 12.9757 255 255 255
10.1329 -30.4684 12.3116 255 255 255
7.294 -25.8379 -9.04808 255 255 255
17.3571 -38.8687 -9.03368 255 255 255
17.3155 -38.8237 6.30833 255 255 255
22.8061 -50.7321 -7.0313 255 255 255
18.0077 -40.4941 18.5335 255 255 255
24.6903 -55.9551 10.7238 255 255 255
22.9367 -51.9245 12.4656 255 255 255
7.21898 -26.1713 16.6607 255 255 255
23.8347 -54.5868 -8.95292 255 255 255
17.1826 -39.4733 -3.35427 255 255 255
18.8051 -43.3112 -12.5389 255 255 255
15.7843 -36.1414 23.5075 255 255 255
27.0435 -62.0491 13.8678 255 255 255
24.4579 -56.2495 11.8074 255 255 255
7.33203 -26.3619 13.03 255 255 255
9.84837 -30.9905 -4.09026 255 255 255
18.529 -42.8224 10.8697 255 255 255
22.8657 -53.1515 12.8633 255 255 255
9.6764 -30.6181 12.6207 255 255 255
11.3627 -33.693 -9.0087 255 255 255
16.8756 -39.5868 -12.3702 255 255 255
15.8589 -36.7084 10.7814 255 255 255
22.36 -52.2478 11.7561 255 255 255
10.556 -32.268 -12.1483 255 255 255
13.9713 -33.6683 12.6083 255 255 255
11.1842 -33.5757 -3.40248 255 255 255
18.417 -43.5071 -9.0756 255 255 255
16.625 -39.5334 21.7833 255 255 255
25.3273 -60.2813 11.7693 255 255 255
7.83244 -28.0791 6.99316 255 255 255
21.1119 -50.3122 6.41332 255 255 255
20.9783 -50.3157 12.9522 255 255 255
5.72524 -24.785 13.0102 255 255 255
10.2072 -32.7309 11.9347 255 255 255
7.25627 -27.2772 12.1291 255 255 255
8.84589 -29.9841 -5.92214 255 255 255
17.19 -41.8389 11.5321 255 255 255
10.8234 -33.5644 13.2779 255 255 255
11.0592 -34.5742 13.3354 255 255 255
11.0991 -34.6788 -10.7324 255 255 255
16.4324 -39.5266 -10.7066 255 255 255
16.0932 -38.5501 4.03618 255 255 255
19.8431 -48.5264 13.0522 255 255 255
9.73226 -32.2658 -9.44741 255 255 255
16.3882 -39.5861 13.6083 255 255 255
10.0518 -33.1938 12.1604 255 255 255
6.12823 -25.7251 12.666 255 255 255
10.0527 -32.7801 7.25996 255 255 255
21.1764 -51.7573 12.0114 255 255 255
9.21239 -31.2759 -10.4003 255 255 255
15.966 -39.1931 -6.20027 255 255 255
16.9363 -41.9821 12.5306 255 255 255
9.26163 -31.5771 14.0565 255 255 255
22.7006 -56.2087 8.83145 255 255 255
20.7579 -51.6153 12.3979 255 255 255
6.64678 -27.1225 12.4094 255 255 255
4.53563 -23.5677 -6.0341 255 255 255
16.7541 -42.3086 13.7293 255 255 255
3.7351 -22.4984 1.56912 255 255 255
18.9426 -47.8995 -12.3814 255 255 255
15.4336 -38.6897 -10.1917 255 255 255
15.8883 -40.1465 13.7959 255 255 255
21.0731 -54.7069 -6.57083 255 255 255
16.457 -42.2687 11.7426 255 255 255
5.64943 -26.0371 13.807 255 255 255
9.96258 -34.533 9.52294 255 255 255
19.9768 -51.8498 -5.14274 255 255 255
17.1333 -44.1177 12.6787 255 255 255
8.44797 -31.5705 8.86245 255 255 255
20.9223 -54.1988 13.1926 255 255 255
4.66567 -24.8459 -9.05288 255 255 255
15.5634 -40.6941 -0.0942917 255 255 255
18.1317 -47.1126 7.03997 255 255 255
21.4184 -55.1688 12.6049 255 255 255
6.08258 -27.7148 -0.924693 255 255 255
17.7585 -46.7814 -2.73416 255 255 255
17.248 -45.6258 11.5175 255 255 255
10.0329 -35.0345 7.8229 255 255 255
19.7324 -53.0505 -11.2452 255 255 255
15.1579 -39.9289 0.570952 255 255 255
18.2159 -48.5566 9.32809 255 255 255
20.1071 -54.6024 -12.2063 255 255 255
12.7625 -35.0418 -3.06194 255 255 255
16.9779 -45.8678 12.1115 255 255 255
5.84955 -27.6108 12.8325 255 255 255
5.95257 -28.4763 9.29415 255 255 255
19.9773 -54.67 -12.1387 255 255 255
14.382 -38.4717 -8.45679 255 255 255
15.2981 -41.716 -12.5005 255 255 255
14.5328 -39.2936 -4.05889 255 255 255
16.3783 -45.1109 14.2479 255 255 255
2.25217 -21.8278 13.0859 255 255 255
5.04625 -27.0704 12.7861 255 255 255
8.08937 -32.57 4.28307 255 255 255
18.3351 -51.192 12.3703 255 255 255
8.90154 -34.4504 0.912909 255 255 255
17.9724 -49.9734 12.5868 255 255 255
3.4225 -24.1745 14.2799 255 255 255
4.01643 -25.991 13.9072 255 255 255
2.63178 -23.0698 -11.1584 255 255 255
14.5531 -40.1007 14.3906 255 255 255
3.86351 -25.8312 13.2486 255 255 255
4.2813 -26.3096 1.61254 255 255 255
17.3379 -49.6066 8.54715 255 255 255
19.1352 -54.7762 5.90032 255 255 255
0.616418 -17.0489 12.9834 255 255 255
5.98779 -29.8197 13.7174 255 255 255
3.94184 -25.9748 11.7606 255 255 255
4.84456 -26.898 -10.0064 255 255 255
14.4109 -41.0787 13.2157 255 255 255
9.43174 -37.2621 14.2436 255 255 255
3.59329 -25.8369 -3.37089 255 255 255
16.0428 -46.3479 13.885 255 255 255
4.07342 -26.7855 -4.52011 255 255 255
15.9126 -45.8012 -4.52011 255 255 255
15.9126 -45.8012 11.0773 255 255 255
5.46295 -28.4592 12.889 255 255 255
4.3233 -26.9171 13.9724 255 255 255
3.46057 -25.539 14.6251 255 255 255
1.69297 -22.1515 -11.129 255 255 255
14.3597 -41.077 14.3728 255 255 255
2.72214 -24.3522 -0.170987 255 255 255
16.8477 -49.3524 14.5856 255 255 255
2.68625 -24.4707 -11.9558 255 255 255
13.7614 -39.565 0.365318 255 255 255
17.1593 -50.5011 4.68296 255 255 255
17.6655 -52.717 13.8048 255 255 255
3.55798 -26.2386 -10.9396 255 255 255
13.8529 -40.9124 13.916 255 255 255
3.47021 -26.0865 13.8943 255 255 255
3.39148 -26.0149 14.1992 255 255 255
2.69469 -24.7895 -13.0708 255 255 255
13.5684 -39.8149 -9.39878 255 255 255
13.4755 -40.4738 -9.2956 255 255 255
14.3268 -42.5535 14.4709 255 255 255
2.27098 -24.2598 -12.5969 255 255 255
13.2106 -39.062 14.4605 255 255 255
1.29293 -22.1864 14.4605 255 255 255
1.29293 -22.1864 13.6582 255 255 255
3.24339 -26.1677 3.06089 255 255 255
2.92739 -22.223 13.77 255 255 255
2.66148 -25.0582 14.44 255 255 255
1.30461 -22.2888 1.66774 255 255 255
3.17918 -22.2997 14.2652 255 255 255
2.56992 -24.9765 14.1483 255 255 255
2.57985 -24.9946 -12.956 255 255 255
13.2534 -39.8111 1.83376 255 255 255
3.13056 -22.3765 3.28201 255 255 255
2.98364 -22.5142 14.1738 255 255 255
7.6214 -35.8968 -7.1927 255 255 255
14.7007 -44.4975 14.5068 255 255 255
2.78222 -26.0012 -7.06855 255 255 255
14.6086 -44.6964 14.163 255 255 255
2.893 -26.1519 -7.6001 255 255 255
14.1054 -43.819 -12.1245 255 255 255
13.2429 -40.6226 -1.47584 255 255 255
15.5981 -48.7762 3.45757 255 255 255
16.9289 -53.1156 -9.77794 255 255 255
13.8237 -43.0061 -0.333128 255 255 255
15.9576 -50.6461 2.52588 255 255 255
1.81317 -20.4259 13.0892 255 255 255
3.99794 -28.8365 -1.52053 255 255 255
15.382 -49.0787 -9.71401 255 255 255
13.742 -42.7753 -11.2819 255 255 255
13.3908 -41.8864 -9.86687 255 255 255
13.6307 -42.6387 -7.14419 255 255 255
14.4017 -45.2092 14.7855 255 255 255
0.790951 -22.6231 -10.2933 255 255 255
13.4653 -42.4488 -3.53372 255 255 255
14.7743 -47.3352 2.18162 255 255 255
1.6426 -20.1748 -1.38314 255 255 255
14.9828 -48.6707 -10.5787 255 255 255
13.1171 -41.944 -7.14873 255 255 255
14.0377 -45.0744 14.4334 255 255 255
2.30371 -26.2212 -0.493982 255 255 255
3.07918 -22.7284 2.44753 255 255 255
1.659 -20.5554 1.45771 255 255 255
1.8309 -20.6196 1.51196 255 255 255
1.78566 -20.5812 0.748844 255 255 255
2.10225 -21.0025 13.5119 255 255 255
3.05021 -27.7403 1.66637 255 255 255
1.68799 -20.604 1.37492 255 255 255
1.8024 -20.7741 14.2227 255 255 255
1.86511 -25.5891 -11.0599 255 255 255
12.7396 -41.8022 -6.96207 255 255 255
13.9482 -45.9242 -3.91745 255 255 255
14.6773 -48.6486 -11.2521 255 255 255
12.8768 -41.8776 -0.609493 255 255 255
2.69478 -22.4399 12.3185 255 255 255
4.29595 -30.7298 -1.02676 255 255 255
3.272 -23.6653 -5.69235 255 255 255
13.9455 -46.8558 13.934 255 255 255
1.49231 -24.9372 4.65529 255 255 255
-1.68009 -14.481 4.65529 255 255 255
-1.68009 -14.481 0.771011 255 255 255
1.72532 -20.8651 6.95713 255 255 255
13.3376 -50.1061 0.14672 255 255 255
1.95656 -21.3322 -0.179521 255 255 255
15.1184 -51.8891 -1.02684 255 255 255
2.7016 -22.6267 0.990102 255 255 255
15.2085 -52.5859 1.00784 255 255 255
15.4287 -52.9736 1.54228 255 255 255
15.2795 -53.0723 0.955919 255 255 255
1.5008 -20.6807 0.287299 255 255 255
1.66341 -20.9925 4.78871 255 255 255
-1.84661 -14.5794 0.245308 255 255 255
1.62332 -20.976 5.92919 255 255 255
-0.81326 -17.5115 13.9625 255 255 255
1.23024 -25.3513 -10.0159 255 255 255
12.6064 -43.6198 11.7347 255 255 255
4.04223 -30.7979 -5.82087 255 255 255
13.8069 -47.5707 14.9951 255 255 255
1.05088 -25.6827 14.806 255 255 255
0.966407 -25.3291 -0.454216 255 255 255
1.89839 -21.5461 0.11212 255 255 255
1.43589 -20.692 13.1708 255 255 255
2.37784 -28.0051 12.5199 255 255 255
3.80477 -31.3061 4.24179 255 255 255
12.6946 -49.2218 13.136 255 255 255
2.73295 -29.0802 5.15616 255 255 255
12.5987 -49.8499 -1.10655 255 255 255
2.62331 -23.2788 -11.4955 255 255 255
12.2067 -42.811 13.2122 255 255 255
2.41757 -28.6497 -10.4175 255 255 255
12.2739 -43.6389 -7.49875 255 255 255
12.9891 -46.4022 -6.8776 255 255 255
13.086 -47.2349 -9.57989 255 255 255
12.5327 -44.6487 13.818 255 255 255
0.9321 -25.7291 14.158 255 255 255
1.31118 -26.8674 -0.975594 255 255 255
2.17577 -22.8755 -1.32303 255 255 255
2.19646 -22.7637 -3.81234 255 255 255
13.3443 -49.5567 0.317985 255 255 255
1.09218 -20.7453 -9.94821 255 255 255
12.3956 -44.5574 14.1787 255 255 255
1.39111 -27.2248 13.0839 255 255 255
2.56854 -29.5598 13.8873 255 255 255
1.06745 -26.4015 -1.11397 255 255 255
1.91913 -22.1992 13.0434 255 255 255
2.89696 -30.7013 -5.04048 255 255 255
12.8978 -48.8712 -5.74532 255 255 255
13.0657 -48.7965 -1.12776 255 255 255
1.66996 -22.1419 14.0727 255 255 255
0.800865 -26.6173 5.44038 255 255 255
-1.94655 -16.0348 0.768684 255 255 255
0.632863 -20.5066 14.0304 255 255 255
1.42879 -28.3357 -0.113664 255 255 255
0.915052 -20.8508 2.21679 255 255 255
-0.00881608 -19.7138 5.24438 255 255 255
-2.20502 -15.5922 2.40868 255 255 255
0.155961 -20.0327 13.9402 255 255 255
0.650194 -26.7229 13.0059 255 255 255
2.35811 -31.0445 -1.87565 255 255 255
2.81881 -25.8132 1.29706 255 255 255
0.177477 -20.2474 -10.6193 255 255 255
10.4663 -43.7255 -2.53202 255 255 255
3.55086 -28.0595 13.4622 255 255 255
1.05356 -28.6129 12.485 255 255 255
0.760025 -27.4351 -1.4805 255 255 255
1.245 -22.2943 14.2392 255 255 255
0.769871 -28.72 -2.05925 255 255 255
2.48148 -25.5113 14.0726 255 255 255
0.451072 -27.9319 0.369292 255 255 255
0.153268 -20.3162 0.369292 255 255 255
0.153268 -20.3162 -7.72473 255 255 255
11.6169 -47.9829 14.3721 255 255 255
0.326732 -28.0552 14.211 255 255 255
0.362499 -27.9288 -0.550506 255 255 255
0.491484 -21.151 -2.11302 255 255 255
2.24903 -25.2608 2.86212 255 255 255
-0.407787 -20.1663 1.54252 255 255 255
-0.263309 -19.9757 -2.01298 255 255 255
1.60177 -23.6777 0.0265892 255 255 255
0.121491 -20.7077 13.8869 255 255 255
0.73385 -29.4353 6.27215 255 255 255
-1.91779 -18.5221 3.38304 255 255 255
-0.591016 -20.578 3.38304 255 255 255
-0.591016 -20.578 -2.86166 255 255 255
2.73601 -26.9731 13.364 255 255 255
0.944298 -30.3305 -2.02768 255 255 255
1.26441 -23.4312 0.961483 255 255 255
-0.387317 -20.374 0.961483 255 255 255
-0.387317 -20.374 2.42465 255 255 255
-0.677135 -20.3208 -1.96264 255 255 255
1.14234 -23.3629 -0.0593652 255 255 255
-0.105002 -20.767 -2.46239 255 255 255
1.3856 -24.1344 0.956303 255 255 255
-0.528082 -20.4043 5.93295 255 255 255
-1.15943 -21.3129 2.63261 255 255 255
-0.890145 -20.5266 2.60108 255 255 255
-0.860863 -20.5493 -1.75561 255 255 255
0.58876 -22.6114 -1.75323 255 255 255
0.58524 -22.6116 2.10238 255 255 255
-0.815583 -20.5137 14.3841 255 255 255
-0.790492 -27.7597 14.2816 255 255 255
-0.80696 -27.4057 0.071933 255 255 255
-0.417125 -20.7971 14.2683 255 255 255
-0.715786 -28.0078 -1.70582 255 255 255
0.481386 -22.6551 -1.70582 255 255 255
0.481386 -22.6551 0.345957 255 255 255
-0.585557 -20.6301 1.20981 255 255 255
-0.831489 -20.4574 2.98178 255 255 255
-1.16253 -20.5151 2.59364 255 255 255
-1.1445 -20.5508 -12.5512 255 255 255
9.54959 -45.1623 -2.12283 255 255 255
0.339989 -22.7022 -3.8361 255 255 255
1.43155 -25.2083 -3.82709 255 255 255
1.43793 -25.2462 14.3638 255 255 255
-0.936388 -28.7719 3.29699 255 255 255
-1.44453 -20.5463 3.9296 255 255 255
-1.54935 -20.776 6.13377 255 255 255
-3.11877 -18.1182 -3.33016 255 255 255
0.799075 -24.5321 -2.57238 255 255 255
0.162673 -22.9974 14.7285 255 255 255
-1.75297 -27.8319 1.61189 255 255 255
-1.56593 -20.211 1.81033 255 255 255
-1.55788 -20.2006 -2.53981 255 255 255
0.0797248 -23.0525 -1.58207 255 255 255
-0.519407 -21.6504 15.3165 255 255 255
-2.50283 -26.1347 14.7476 255 255 255
-2.01418 -27.7393 14.6052 255 255 255
-1.39023 -29.8967 12.8652 255 255 255
-1.4414 -28.0116 -3.80454 255 255 255
0.5107 -23.9333 15.2447 255 255 255
-2.24834 -27.5949 -3.8133 255 255 255
0.482281 -24.1256 -3.66272 255 255 255
4.80749 -39.1601 -1.43929 255 255 255
-0.918011 -21.4119 6.02283 255 255 255
-3.43235 -18.3349 -1.24529 255 255 255
-1.12937 -21.1731 0.356365 255 255 255
-1.71009 -20.305 -1.28897 255 255 255
-1.16225 -21.1958 14.9639 255 255 255
-2.58269 -27.8603 4.42527 255 255 255
-2.5961 -20.2395 -2.91199 255 255 255
-0.398815 -22.8614 -3.74828 255 255 255
-0.130599 -23.3316 -1.67996 255 255 255
-1.02738 -21.5741 -1.72207 255 255 255
-1.02109 -21.6032 -0.849237 255 255 255
-1.38835 -20.7447 14.9091 255 255 255
-2.7792 -27.9508 -1.84703 255 255 255
-1.00916 -21.7321 3.45189 255 255 255
-2.55134 -20.1568 14.9202 255 255 255
-2.67006 -28.1734 -1.79236 255 255 255
-1.07794 -21.7215 -1.79657 255 255 255
-1.07541 -21.7143 4.34849 255 255 255
-2.72118 -20.2202 -1.26282 255 255 255
-1.31196 -21.2564 0.600172 255 255 255
-2.014 -20.3529 0.962273 255 255 255
-2.10065 -20.0178 2.70143 255 255 255
-2.70706 -19.6681 4.19929 255 255 255
-2.84882 -20.3747 -3.43206 255 255 255
-0.582705 -22.8648 -2.49328 255 255 255
-1.02762 -22.0344 -0.992272 255 255 255
-1.5936 -21.0892 -0.758939 255 255 255
-1.68587 -20.9108 5.59622 255 255 255
-4.0834 -17.3882 4.20684 255 255 255
-2.85559 -20.3249 15.2125 255 255 255
-3.47603 -27.2381 15.2125 255 255 255
-3.47603 -27.2381 -3.73465 255 255 255
-0.39806 -23.5695 -10.9099 255 255 255
4.69208 -37.7892 -5.06977 255 255 255
3.41467 -37.5245 2.42824 255 255 255
-2.71749 -19.9205 4.51651 255 255 255
-2.94721 -20.6766 4.51651 255 255 255
-2.94721 -20.6766 5.72437 255 255 255
-4.10419 -17.8686 15.3367 255 255 255
-3.8753 -26.0454 -2.21539 255 255 255
-1.49031 -21.3385 -3.16665 255 255 255
-1.02339 -22.5249 -2.81634 255 255 255
-1.45064 -21.4548 -3.27456 255 255 255
-0.989131 -22.7567 -3.44919 255 255 255
-0.994219 -22.7258 -2.36746 255 255 255
-1.65934 -21.1541 -4.48226 255 255 255
2.54197 -36.2059 15.6223 255 255 255
-4.10284 -26.6181 2.1794 255 255 255
-3.00178 -19.7077 2.87954 255 255 255
-3.1309 -19.8913 1.49317 255 255 255
-2.96327 -19.6326 -3.26179 255 255 255
-1.14019 -23.1543 -2.68222 255 255 255
-1.76876 -21.8706 -2.68277 255 255 255
-1.77126 -21.8707 -1.20206 255 255 255
-2.50374 -20.1735 -0.900394 255 255 255
-2.62751 -20.0168 1.75509 255 255 255
-3.25577 -19.8226 -8.2367 255 255 255
2.73754 -36.15 1.41818 255 255 255
-3.18025 -19.8474 14.3312 255 255 255
-4.63739 -25.9624 -0.576515 255 255 255
-2.72075 -20.2393 -0.221978 255 255 255
-2.87664 -20.1752 -6.11649 255 255 255
0.626972 -30.9039 -6.54343 255 255 255
0.704653 -30.9052 2.62903 255 255 255
-3.67856 -20.2787 -0.643065 255 255 255
-2.94183 -20.4505 1.17979 255 255 255
-3.48014 -19.9123 2.93437 255 255 255
-3.84297 -20.42 0.792571 255 255 255
-3.55021 -19.6316 -1.91137 255 255 255
-2.58558 -21.5311 -6.79415 255 255 255
1.08499 -34.0252 4.3163 255 255 255
-4.05626 -21.6437 -6.79601 255 255 255
0.152476 -30.1775 -1.81284 255 255 255
-2.72589 -21.7178 4.18751 255 255 255
-4.12496 -21.4546 -3.07977 255 255 255
-2.16503 -23.1879 3.96079 255 255 255
-4.13949 -21.3401 -7.70948 255 255 255
0.795271 -33.476 -12.4301 255 255 255
2.19914 -35.1016 -8.46286 255 255 255
1.03867 -33.9192 -6.79772 255 255 255
-0.261041 -29.5903 -2.76388 255 255 255
-2.5282 -22.6428 -1.74784 255 255 255
-3.02341 -21.747 -1.20706 255 255 255
-3.34306 -20.9439 0.795471 255 255 255
-3.91472 -20.5455 3.75128 255 255 255
-4.4064 -21.5399 0.732394 255 255 255
-3.92649 -20.482 2.86431 255 255 255
-4.4416 -20.7448 -2.69013 255 255 255
-2.76753 -22.9172 -2.4898 255 255 255
-2.84783 -22.6766 0.444636 255 255 255
-3.88593 -20.7809 2.93709 255 255 255
-4.46204 -20.9586 3.64532 255 255 255
-4.43843 -21.663 4.70396 255 255 255
-4.64921 -22.2567 4.54534 255 255 255
-4.65515 -22.1445 -8.55143 255 255 255
0.279671 -32.9567 -7.4795 255 255 255
-0.669409 -29.1527 -7.25353 255 255 255
-0.442729 -30.7234 2.02747 255 255 255
-4.32131 -20.7517 -7.14575 255 255 255
-0.264929 -32.5533 1.03111 255 255 255
-4.16343 -20.7745 -0.723542 255 255 255
-3.77212 -21.4754 0.0741328 255 255 255
-4.18993 -21.2101 0.695147 255 255 255
-4.45337 -20.9295 -1.92443 255 255 255
-3.60628 -22.3399 0.50965 255 255 255
-4.47685 -20.9904 0.591151 255 255 255
-4.43301 -21.3474 0.786238 255 255 255
-4.57907 -21.2086 -9.08959 255 255 255
-0.467935 -31.9229 -9.10253 255 255 255
-0.49205 -31.6592 -1.96837 255 255 255
-3.68607 -22.4149 -1.9186 255 255 255
-3.73202 -22.3554 -1.8463 255 255 255
-3.74849 -22.3168 -1.87253 255 255 255
-3.79859 -22.1161 1.61703 255 255 255
-4.78254 -21.1041 -1.98518 255 255 255
-3.72778 -22.3985 -0.497033 255 255 255
-4.28835 -21.3974 -2.54271 255 255 255
-3.51972 -23.4113 1.58056 255 255 255
-4.89033 -21.3477 -0.926348 255 255 255
-4.25635 -21.85 -2.21889 255 255 255
-3.83123 -23.2296 -2.23878 255 255 255
-3.86309 -22.9434 -0.190502 255 255 255
-4.60139 -21.4474 -10.489 255 255 255
-0.978433 -29.9855 -2.61351 255 255 255
-3.81452 -23.5368 -2.4253 255 255 255
-3.83719 -23.5132 -2.58318 255 255 255
-4.01028 -23.4899 -5.05 255 255 255
-3.06455 -27.7442 0.736698 255 255 255
-5.35318 -21.3913 -1.26204 255 255 255
-4.85478 -21.984 -7.03053 255 255 255
-2.62913 -28.8481 -4.66652 255 255 255
-3.66792 -26.0278 -6.87414 255 255 255
-3.23885 -27.9947 -3.39343 255 255 255
-4.68759 -23.4306 -3.21435 255 255 255
-4.77789 -23.6367 -7.29602 255 255 255
-3.3317 -28.076 0.420565 255 255 255
-6.21422 -20.9713 -3.07506 255 255 255
-5.12736 -24.079 -3.50547 255 255 255
-5.16178 -23.8474 -0.384538 255 255 255
-6.12268 -21.774 -7.797 255 255 255
-3.90946 -26.7108 -1.67857 255 255 255
-5.82159 -21.9472 -1.75617 255 255 255
-5.80138 -22.2584 -1.77485 255 255 255
-5.99145 -22.5798 -3.52681 255 255 255
-5.26694 -24.4933 -9.29839 255 255 255
-3.84527 -27.0896 2.81789 255 255 255
-7.8333 -19.1671 4.88354 255 255 255
-8.86898 -20.3094 4.56704 255 255 255
-8.80365 -20.3035 4.95694 255 255 255
-8.99839 -20.0081 2.22003 255 255 255
-8.23394 -20.7675 2.4416 255 255 255
-8.38878 -19.2306 -0.649072 255 255 255
-7.33898 -21.5241 2.28138 255 255 255
-8.49687 -21.5655 1.95723 255 255 255
-8.65213 -21.4727 -1.42018 255 255 255
-7.49887 -21.745 1.79852 255 255 255
-8.8021 -20.5166 -1.06686 255 255 255
-7.78308 -21.2769 -0.51462 255 255 255
-8.14838 -21.158 -0.586987 255 255 255
-7.99311 -20.9913 5.21303 255 255 255
27.5059 -41.3023 5.18766 255 255 255
27.8126 -42.708 3.33564 255 255 255
26.8881 -41.622 3.36022 255 255 255
26.9826 -41.653 4.78345 255 255 255
27.2832 -42.4537 5.40889 255 255 255
27.5004 -42.5772 4.99553 255 255 255
27.5343 -42.8279 8.50203 255 255 255
28.4997 -44.2586 11.0362 255 255 255
28.9457 -45.0442 11.51 255 255 255
28.8269 -44.7254 8.61481 255 255 255
28.221 -44.0841 8.37904 255 255 255
28.3719 -44.3645 12.2573 255 255 255
30.1129 -46.9493 18.446 255 255 255
32.6415 -50.2609 4.34469 255 255 255
26.8494 -42.4797 14.5933 255 255 255
30.4394 -47.3479 15.3302 255 255 255
31.4412 -48.7225 12.4837 255 255 255
30.4403 -47.537 12.5659 255 255 255
30.3922 -47.3921 4.64195 255 255 255
27.0185 -42.7822 4.76572 255 255 255
26.9409 -42.7911 4.72259 255 255 255
27.0197 -43.373 9.73629 255 255 255
28.5758 -45.5697 4.99221 255 255 255
26.5858 -42.8678 17.9332 255 255 255
31.3909 -49.8961 15.5826 255 255 255
30.9116 -49.1764 10.1368 255 255 255
15.0851 -28.4333 11.6667 255 255 255
16.0085 -29.5921 16.4319 255 255 255
31.1653 -49.7202 10.9614 255 255 255
14.2354 -27.4415 -3.80424 255 255 255
22.8759 -37.795 11.346 255 255 255
28.9129 -46.7798 12.7487 255 255 255
16.3723 -30.3408 6.84896 255 255 255
27.0901 -44.0661 -0.205697 255 255 255
24.4671 -40.1242 2.89839 255 255 255
25.6644 -42.1338 11.4146 255 255 255
11.7136 -24.6368 -0.679637 255 255 255
24.2916 -39.9409 7.03268 255 255 255
26.9594 -44.1313 12.1525 255 255 255
16.8137 -31.1462 2.43043 255 255 255
25.512 -42.0976 4.55011 255 255 255
26.13 -43.1395 2.25612 255 255 255
25.7987 -42.313 7.91895 255 255 255
27.3386 -44.9698 6.32794 255 255 255
26.7821 -44.1727 -4.79619 255 255 255
22.7782 -37.9959 12.4748 255 255 255
10.3974 -23.2736 -12.3083 255 255 255
19.2139 -32.7696 14.8052 255 255 255
29.9479 -49.3965 -5.43679 255 255 255
22.3238 -37.7955 0.114394 255 255 255
24.3391 -40.9744 0.130579 255 255 255
24.3919 -41.0152 -5.81967 255 255 255
22.4253 -37.9465 6.34658 255 255 255
7.15525 -18.4974 1.76811 255 255 255
25.2135 -42.2384 5.8407 255 255 255
6.31101 -17.4382 6.35753 255 255 255
26.1636 -44.0522 8.82965 255 255 255
8.71413 -20.8846 14.6912 255 255 255
14.4727 -29.1987 -0.773552 255 255 255
23.741 -40.4723 0.386855 255 255 255
23.9014 -40.8483 12.5988 255 255 255
10.8169 -24.1921 -6.08724 255 255 255
21.7482 -37.2988 13.0473 255 255 255
9.93704 -23.0829 1.43011 255 255 255
24.5951 -41.9405 -1.11943 255 255 255
23.5288 -40.3124 18.9641 255 255 255
30.6769 -51.434 12.5934 255 255 255
10.8062 -24.3206 13.1403 255 255 255
9.94781 -23.2591 3.33559 255 255 255
25.3151 -43.3656 16.9321 255 255 255
29.8859 -50.5014 9.60957 255 255 255
7.4204 -19.6556 -11.045 255 255 255
19.9439 -34.7346 13.1226 255 255 255
9.82542 -23.2271 4.32969 255 255 255
3.85198 -14.3065 4.32969 255 255 255
3.85198 -14.3065 13.9967 255 255 255
27.6941 -47.4244 5.12578 255 255 255
25.8667 -44.443 12.2728 255 255 255
15.992 -31.4837 2.08495 255 255 255
24.5954 -42.4653 13.36 255 255 255
9.84163 -23.3636 4.23321 255 255 255
3.64733 -14.1133 7.63618 255 255 255
26.4369 -45.7726 3.08054 255 255 255
2.19027 -12.1016 14.4441 255 255 255
28.3848 -49.0599 3.64955 255 255 255
2.89511 -13.2066 -0.539698 255 255 255
23.2891 -41.0453 -12.0499 255 255 255
19.1745 -34.2715 -12.0058 255 255 255
19.1456 -34.2659 -1.04946 255 255 255
23.1162 -40.8201 -0.989331 255 255 255
23.2029 -41.0714 18.4791 255 255 255
29.4299 -51.5153 17.6252 255 255 255
29.4262 -51.6344 -0.0166788 255 255 255
23.6227 -42.0011 18.6363 255 255 255
29.5906 -52.1763 24.3165 255 255 255
29.7559 -52.9393 14.0115 255 255 255
28.171 -49.911 12.5159 255 255 255
27.3111 -48.6381 11.7998 255 255 255
10.6224 -25.0936 12.55 255 255 255
12.967 -28.495 14.3192 255 255 255
9.67877 -24.5085 14.3192 255 255 255
9.67877 -24.5085 -11.1312 255 255 255
19.247 -35.1616 12.0324 255 255 255
25.8263 -47.0479 12.4593 255 255 255
28.4828 -51.081 5.76215 255 255 255
24.9661 -45.5324 15.7597 255 255 255
27.8829 -50.6652 12.5863 255 255 255
27.0126 -49.6049 -5.53478 255 255 255
20.8182 -38.6178 7.76549 255 255 255
25.2307 -46.5519 -3.24097 255 255 255
21.6351 -40.5635 1.52809 255 255 255
23.1407 -43.4369 7.71301 255 255 255
24.9556 -46.786 14.9026 255 255 255
26.5497 -49.5483 14.4244 255 255 255
25.7281 -48.5604 15.018 255 255 255
25.8717 -48.9956 21.5273 255 255 255
31.3045 -57.8305 -11.0431 255 255 255
18.5404 -35.3234 10.2618 255 255 255
25.2865 -48.3205 9.78461 255 255 255
24.8936 -47.4766 4.67395 255 255 255
23.9809 -45.7384 4.55641 255 255 255
23.7923 -45.264 -6.84032 255 255 255
20.1578 -38.7098 10.4288 255 255 255
24.9932 -48.0194 20.194 255 255 255
25.6319 -50.0055 11.8333 255 255 255
9.91485 -25.6216 10.2937 255 255 255
25.5023 -48.722 14.4835 255 255 255
12.4983 -29.9686 6.32247 255 255 255
25.2179 -47.9881 11.8968 255 255 255
13.8036 -31.5241 1.11465 255 255 255
22.7454 -43.692 -11.6589 255 255 255
18.135 -35.4406 -8.99442 255 255 255
19.1782 -37.3684 -7.08853 255 255 255
19.451 -38.091 12.1889 255 255 255
25.4398 -49.1295 10.5521 255 255 255
25.2567 -49.0262 -11.1141 255 255 255
18.3233 -35.911 -7.26553 255 255 255
19.3776 -38.0323 13.2691 255 255 255
26.1326 -50.5685 7.69048 255 255 255
24.292 -47.3713 9.46292 255 255 255
25.1843 -49.0455 -2.3419 255 255 255
21.2224 -41.5343 13.8491 255 255 255
13.9125 -32.7905 17.4334 255 255 255
28.0387 -54.4581 23.2992 255 255 255
26.6484 -53.0725 -8.59355 255 255 255
18.8643 -37.3588 11.1278 255 255 255
12.4916 -30.5035 11.5686 255 255 255
11.4408 -28.9928 9.62846 255 255 255
24.7369 -48.9126 8.53463 255 255 255
24.1201 -48.0591 15.3977 255 255 255
26.3084 -51.9342 12.7595 255 255 255
11.2455 -28.7927 17.3025 255 255 255
25.302 -50.9246 -8.20216 255 255 255
19.1514 -38.3065 12.6297 255 255 255
24.2294 -48.6906 -8.64127 255 255 255
18.9673 -38.2618 -8.68699 255 255 255
17.6168 -36.0794 0.724228 255 255 255
21.8869 -44.0535 -1.42123 255 255 255
21.128 -42.7437 -11.5087 255 255 255
17.609 -35.787 -7.75491 255 255 255
18.9877 -38.8418 -7.67956 255 255 255
18.6382 -38.3695 18.4482 255 255 255
25.5533 -52.0233 16.0071 255 255 255
25.945 -52.5158 5.46526 255 255 255
22.7357 -46.1378 -5.77136 255 255 255
19.5208 -39.8426 6.67619 255 255 255
23.3627 -47.5476 -12.7421 255 255 255
17.0984 -35.0191 6.04772 255 255 255
23.099 -47.1104 -4.30427 255 255 255
19.9956 -40.966 12.4705 255 255 255
23.9807 -49.5738 12.4652 255 255 255
23.9219 -49.514 -8.93107 255 255 255
18.6513 -38.7457 17.8386 255 255 255
27.2859 -55.5973 -12.1676 255 255 255
14.9636 -32.2009 12.4145 255 255 255
6.4047 -22.4271 17.3055 255 255 255
27.3076 -55.9975 15.3611 255 255 255
25.4234 -52.5269 12.5109 255 255 255
7.31585 -24.0633 -3.19839 255 255 255
19.8452 -41.7967 20.6408 255 255 255
25.9987 -54.4782 12.6654 255 255 255
8.77736 -26.7071 -3.00259 255 255 255
20.1003 -42.3523 -8.9336 255 255 255
17.9283 -38.0274 19.3278 255 255 255
25.57 -53.9137 -0.033806 255 255 255
21.0644 -44.3955 -0.0239708 255 255 255
21.0557 -44.2883 12.7292 255 255 255
10.7465 -29.6515 -8.50835 255 255 255
18.3925 -38.7257 -8.49725 255 255 255
18.3854 -38.7247 11.737 255 255 255
9.02837 -26.9561 11.737 255 255 255
9.02837 -26.9561 9.46105 255 255 255
24.7152 -51.6985 2.87818 255 255 255
21.4387 -45.3918 2.75301 255 255 255
21.5653 -45.7062 2.21799 255 255 255
21.4327 -45.4258 -10.6004 255 255 255
17.4572 -37.1067 2.04177 255 255 255
21.4152 -45.6082 1.80004 255 255 255
20.9487 -44.6371 1.76634 255 255 255
21.3847 -45.5571 1.78111 255 255 255
21.397 -45.6131 -6.91879 255 255 255
18.4295 -39.518 -12.3137 255 255 255
16.8109 -35.9565 2.10402 255 255 255
21.1298 -45.6158 15.0407 255 255 255
24.6403 -53.1067 14.4948 255 255 255
24.6219 -53.0408 9.69822 255 255 255
22.3879 -49.5944 10.3493 255 255 255
23.3908 -51.3736 17.6161 255 255 255
24.9971 -54.9038 19.3255 255 255 255
24.8077 -55.0578 19.3255 255 255 255
24.8077 -55.0578 19.4088 255 255 255
24.6567 -54.8574 9.03154 255 255 255
22.6095 -50.1286 22.3045 255 255 255
27.5215 -60.6581 -4.91357 255 255 255
18.7151 -41.6519 -11.8177 255 255 255
16.5668 -36.8998 13.0939 255 255 255
6.60144 -24.8316 12.1477 255 255 255
7.60773 -26.5647 17.9063 255 255 255
24.4584 -55.5928 16.4826 255 255 255
23.8645 -54.7987 15.1741 255 255 255
22.9809 -53.4484 13.5397 255 255 255
22.0916 -51.6861 12.8259 255 255 255
9.50642 -30.3966 12.9421 255 255 255
5.29115 -23.6631 6.32271 255 255 255
21.3482 -50.3401 19.5239 255 255 255
23.7541 -56.9713 13.0944 255 255 255
6.19272 -25.5675 12.7409 255 255 255
10.7985 -33.8123 -3.64148 255 255 255
18.2581 -43.6687 13.6777 255 255 255
10.2517 -33.3187 11.306 255 255 255
7.43638 -27.8821 11.9852 255 255 255
9.28942 -31.4842 1.70545 255 255 255
19.453 -47.5495 0.542615 255 255 255
18.9698 -46.9802 5.54941 255 255 255
20.1875 -50.2418 -9.09137 255 255 255
15.9674 -40.0927 1.54216 255 255 255
19.7608 -48.8816 13.0958 255 255 255
9.39548 -32.4261 5.84543 255 255 255
20.035 -50.6477 1.84639 255 255 255
19.1506 -48.3269 5.4137 255 255 255
20.0891 -50.9467 13.3809 255 255 255
9.19792 -33.2587 13.686 255 255 255
4.95205 -25.3619 12.247 255 255 255
6.7532 -28.572 12.846 255 255 255
7.04253 -29.4662 -3.14454 255 255 255
17.209 -45.3796 12.1089 255 255 255
9.62429 -34.5634 13.728 255 255 255
5.30356 -26.988 13.4923 255 255 255
5.29454 -26.9675 13.315 255 255 255
4.88107 -26.2773 -5.64025 255 255 255
16.4882 -43.8969 -11.8428 255 255 255
14.9085 -39.4987 15.5308 255 255 255
21.1052 -57.943 12.0465 255 255 255
6.43028 -29.0806 5.06597 255 255 255
18.8903 -51.503 14.1354 255 255 255
4.16852 -25.5446 13.9697 255 255 255
2.95117 -23.35 -9.69589 255 255 255
15.0769 -41.0826 13.885 255 255 255
3.97501 -25.5386 3.78741 255 255 255
18.2496 -51.4577 12.9413 255 255 255
3.70907 -24.9521 10.005 255 255 255
2.26184 -21.3158 -12.4008 255 255 255
14.1735 -39.1136 12.9933 255 255 255
8.7238 -35.3218 -7.75815 255 255 255
15.3255 -43.2582 -7.8104 255 255 255
15.4234 -43.2815 13.879 255 255 255
3.9125 -26.1479 11.7742 255 255 255
5.80836 -29.6971 -10.2723 255 255 255
14.455 -41.1638 7.97446 255 255 255
18.4004 -54.3078 14.5709 255 255 255
3.19679 -25.5693 -0.953521 255 255 255
16.2696 -48.5903 14.4176 255 255 255
1.46861 -22.1003 5.323 255 255 255
-0.0526605 -16.3473 13.5887 255 255 255
3.2582 -25.7999 1.81139 255 255 255
3.38477 -22.8573 12.8094 255 255 255
4.48333 -28.6377 -1.42622 255 255 255
16.2221 -49.5033 14.328 255 255 255
2.29221 -24.6411 -11.4881 255 255 255
13.5515 -41.0091 12.4935 255 255 255
4.02328 -27.7062 0.365768 255 255 255
16.486 -50.582 -9.80827 255 255 255
13.9111 -42.8018 -3.45212 255 255 255
15.0674 -47.6062 2.99716 255 255 255
2.08 -21.0173 -11.4629 255 255 255
13.3234 -41.0643 -10.6766 255 255 255
13.2746 -41.5578 -10.7305 255 255 255
13.2869 -41.383 13.2067 255 255 255
3.73393 -28.0737 13.4024 255 255 255
3.76008 -28.2094 3.03694 255 255 255
1.94071 -20.9058 -1.12704 255 255 255
15.3345 -48.7534 14.0328 255 255 255
2.63926 -26.2283 -12.9383 255 255 255
12.8407 -39.847 14.4454 255 255 255
1.27445 -23.61 2.65546 255 255 255
1.78156 -20.7173 -9.26028 255 255 255
12.6721 -41.2949 3.48736 255 255 255
16.2899 -53.6204 -0.580918 255 255 255
3.42926 -23.5755 -11.076 255 255 255
13.001 -41.8929 13.7781 255 255 255
2.88111 -27.5793 0.717695 255 255 255
15.7276 -51.9785 0.803455 255 255 255
2.0701 -21.2496 -12.79 255 255 255
12.2708 -39.9354 -0.90862 255 255 255
3.28858 -23.5605 -0.0375037 255 255 255
15.5819 -51.6712 6.69887 255 255 255
14.0398 -51.103 -10.9306 255 255 255
13.0398 -42.9113 12.803 255 255 255
3.11142 -28.4184 1.13871 255 255 255
1.43075 -20.3985 12.466 255 255 255
4.53294 -32.0142 12.3011 255 255 255
2.40886 -26.7783 -0.62192 255 255 255
2.35074 -22.0662 14.7427 255 255 255
1.49762 -26.0208 2.80029 255 255 255
1.12293 -20.3499 -0.0553858 255 255 255
1.93315 -21.3665 -0.934648 255 255 255
14.5904 -51.2625 -0.753381 255 255 255
2.14288 -22.0081 -0.511865 255 255 255
1.90833 -21.6636 3.91866 255 255 255
13.0581 -49.8355 -0.0707575 255 255 255
14.4127 -52.081 13.6163 255 255 255
1.59969 -26.7681 13.6163 255 255 255
1.59969 -26.7681 1.55874 255 255 255
0.848292 -20.0467 -1.43215 255 255 255
14.3875 -52.0908 -10.1042 255 255 255
11.5856 -42.2726 3.91972 255 255 255
0.591162 -20.7935 -1.61155 255 255 255
2.45638 -23.202 -11.203 255 255 255
12.0433 -43.5579 -9.94958 255 255 255
12.1946 -44.4549 -9.94958 255 255 255
12.1946 -44.4549 -9.40951 255 255 255
12.2851 -45.2574 -3.2472 255 255 255
13.3074 -50.3483 -10.5968 255 255 255
12.0332 -43.993 -3.48291 255 255 255
13.4866 -50.7507 2.36524 255 255 255
11.0639 -46.9664 2.59338 255 255 255
0.155494 -19.8444 0.7593 255 255 255
0.696598 -20.4789 13.951 255 255 255
1.06917 -27.0232 15.0232 255 255 255
0.192432 -25.93 4.34731 255 255 255
12.3894 -52.5658 14.3739 255 255 255
0.6317 -26.7319 -0.235399 255 255 255
0.910619 -21.0066 1.42311 255 255 255
0.328116 -20.279 13.9479 255 255 255
0.922165 -27.2765 -4.58687 255 255 255
12.8635 -50.1817 6.03426 255 255 255
-1.7659 -17.2756 -0.538807 255 255 255
0.909055 -21.2879 -1.85432 255 255 255
1.90539 -23.624 14.7107 255 255 255
0.493289 -27.6149 -0.170251 255 255 255
0.551718 -20.9271 3.85227 255 255 255
-0.114997 -21.0151 14.109 255 255 255
0.125185 -26.8288 14.9345 255 255 255
-0.125371 -26.4417 14.8764 255 255 255
-0.124875 -26.4412 -6.44776 255 255 255
11.6306 -48.2948 15.2303 255 255 255
-0.559962 -26.4289 -1.15828 255 255 255
0.754614 -21.8553 14.208 255 255 255
0.665674 -29.4732 -1.1254 255 255 255
1.30195 -23.4823 1.61264 255 255 255
-0.364196 -20.0675 -2.22865 255 255 255
2.02571 -25.0855 0.189925 255 255 255
-0.0834309 -20.6393 -3.48807 255 255 255
2.72801 -27.0802 15.1297 255 255 255
-0.734187 -27.0844 -2.69303 255 255 255
1.61 -24.3485 -2.58472 255 255 255
1.5872 -24.5195 2.43779 255 255 255
-0.718132 -20.4555 14.6246 255 255 255
-1.03021 -26.3987 -0.913474 255 255 255
0.219285 -21.5287 -2.61357 255 255 255
1.31102 -24.012 -0.828502 255 255 255
0.0982055 -21.3573 1.9437 255 255 255
-0.883878 -20.083 2.80633 255 255 255
-0.958425 -20.6355 -2.28888 255 255 255
0.939332 -23.5979 5.78885 255 255 255
-2.663 -17.6303 15.1749 255 255 255
-1.08306 -27.7328 15.1357 255 255 255
-1.20768 -27.5629 2.49589 255 255 255
-1.05315 -20.5377 2.94018 255 255 255
-1.44151 -19.916 5.52875 255 255 255
-3.08286 -16.8043 -3.96327 255 255 255
1.40932 -25.414 -2.8372 255 255 255
0.541923 -23.3965 14.9229 255 255 255
-2.1703 -25.8484 -3.16555 255 255 255
5.65753 -40.416 -1.86102 255 255 255
-0.224466 -22.0325 13.8622 255 255 255
-0.562944 -30.7146 0.933836 255 255 255
-1.22464 -20.5991 5.74756 255 255 255
-3.3394 -17.4049 -1.35615 255 255 255
-0.771023 -21.2397 -2.36331 255 255 255
-0.190051 -22.8373 15.6176 255 255 255
-2.52242 -27.2122 5.79114 255 255 255
-3.57737 -17.4574 -3.7307 255 255 255
0.0675384 -23.403 -8.27732 255 255 255
5.8303 -40.5608 14.3998 255 255 255
-1.95607 -29.6001 3.55079 255 255 255
-2.32392 -20.0097 3.95463 255 255 255
-2.44651 -20.3234 -3.57244 255 255 255
-0.104603 -23.3011 -3.7265 255 255 255
-0.17818 -23.0703 -3.61846 255 255 255
-0.183902 -23.1922 4.03665 255 255 255
-2.57133 -20.203 -3.66188 255 255 255
-0.220633 -23.2144 -1.7638 255 255 255
-1.03293 -21.6695 3.17412 255 255 255
-2.80587 -19.0807 15.2537 255 255 255
-3.31321 -27.0695 15.3975 255 255 255
-3.48076 -26.9913 15.5785 255 255 255
-3.75239 -26.4433 -5.29311 255 255 255
3.27212 -36.8218 -5.27072 255 255 255
3.32156 -36.6113 -2.45108 255 255 255
-1.41627 -21.5422 -3.15238 255 255 255
-1.08334 -22.2634 -3.15021 255 255 255
-1.06434 -22.4901 0.93735 255 255 255
-2.67359 -19.8938 3.18474 255 255 255
-3.29674 -19.5824 4.04129 255 255 255
-3.18787 -20.6598 4.04129 255 255 255
-3.18787 -20.6598 -2.86078 255 255 255
-1.49267 -21.5537 0.651304 255 255 255
-2.88718 -19.5577 -1.96873 255 255 255
-1.94498 -21.0694 0.976007 255 255 255
-2.96316 -19.4446 4.45292 255 255 255
-3.34953 -21.2307 -1.71866 255 255 255
-2.10659 -20.8532 -0.518109 255 255 255
-2.66943 -20.1369 -7.09251 255 255 255
2.35144 -35.2681 -3.39999 255 255 255
-1.3517 -23.594 -0.639819 255 255 255
-2.75574 -20.3262 1.64285 255 255 255
-3.35806 -20.1301 1.61921 255 255 255
-3.34669 -20.0627 0.827897 255 255 255
-3.30048 -19.6396 1.5517 255 255 255
-3.48712 -20.0473 -6.26072 255 255 255
0.584575 -30.7168 1.60634 255 255 255
-3.5531 -20.2486 -10.0124 255 255 255
2.08726 -35.3644 -2.22778 255 255 255
-2.42821 -21.8484 0.741543 255 255 255
-3.56287 -19.8137 -0.189526 255 255 255
-3.2097 -20.5482 -1.7268 255 255 255
-2.68826 -21.3661 3.79528 255 255 255
-4.0459 -21.1575 -1.74388 255 255 255
-2.69472 -21.5119 0.811832 255 255 255
-3.61924 -20.0487 0.61604 255 255 255
-3.54316 -20.232 -1.94706 255 255 255
-2.69634 -21.707 3.67113 255 255 255
-4.06672 -21.1112 0.250799 255 255 255
-3.32856 -21.2265 -2.03715 255 255 255
-2.705 -21.8822 -7.98642 255 255 255
0.860571 -33.3464 11.4978 255 255 255
-5.3079 -25.3936 -6.64403 255 255 255
0.363915 -32.7534 -7.97658 255 255 255
0.0470007 -29.9832 -7.97658 255 255 255
0.0470007 -29.9832 4.86421 255 255 255
-4.42312 -22.1466 5.05911 255 255 255
-4.36363 -22.5498 0.704746 255 255 255
-3.86162 -20.1461 3.70499 255 255 255
-4.31442 -21.3998 -0.0560781 255 255 255
-3.63418 -20.8212 -7.01009 255 255 255
0.124878 -32.3664 2.83718 255 255 255
-4.42311 -20.6181 -0.664553 255 255 255
-3.57877 -21.2444 1.53328 255 255 255
-4.3056 -20.7684 -6.62265 255 255 255
-0.369284 -31.9642 -2.07087 255 255 255
-3.21571 -22.3464 -7.58412 255 255 255
-0.212357 -32.3968 0.0308265 255 255 255
-4.06347 -21.0201 1.95002 255 255 255
-4.54561 -20.8407 -3.34236 255 255 255
-2.73861 -24.2659 0.0832483 255 255 255
-4.09113 -21.2008 -3.3301 255 255 255
-2.82038 -24.2891 0.148186 255 255 255
-4.19676 -21.204 -3.17832 255 255 255
-2.94247 -24.0777 -7.12339 255 255 255
-0.866585 -31.4379 -7.1294 255 255 255
-0.847354 -31.385 -7.36798 255 255 255
-0.788516 -31.8315 0.883554 255 255 255
-4.50142 -21.1614 -7.24426 255 255 255
-0.863584 -31.4479 1.71085 255 255 255
-4.63736 -21.2554 -8.40175 255 255 255
-0.843195 -30.9081 0.617247 255 255 255
-4.50178 -20.9519 -8.12508 255 255 255
-0.966531 -30.821 -1.83252 255 255 255
-3.64009 -24.1017 -2.29055 255 255 255
-3.70687 -22.737 -1.86585 255 255 255
-3.89405 -22.3606 -10.6797 255 255 255
-0.428672 -31.6798 0.393438 255 255 255
-4.55631 -21.5332 4.33394 255 255 255
-5.89995 -20.6738 -7.60328 255 255 255
-1.51779 -30.4398 -2.48683 255 255 255
-3.71411 -23.5579 -2.58008 255 255 255
-3.75651 -23.505 -2.25619 255 255 255
-3.95694 -22.9987 -2.25619 255 255 255
-3.95694 -22.9987 -9.28379 255 255 255
-1.23712 -30.9781 -6.82816 255 255 255
-2.22213 -29.6398 -9.01942 255 255 255
-1.6778 -29.9924 -8.7533 255 255 255
-1.73744 -30.3713 5.60613 255 255 255
-6.36642 -22.0501 2.87679 255 255 255
-5.87975 -20.9098 -3.01724 255 255 255
-4.11371 -24.1016 0.772213 255 255 255
-5.32178 -21.4649 -6.79324 255 255 255
-2.88724 -28.4175 0.358481 255 255 255
-5.34132 -22.1226 -7.79455 255 255 255
-2.56836 -29.2324 -6.79905 255 255 255
-2.96951 -28.4642 0.779401 255 255 255
-5.83006 -21.2413 -3.64725 255 255 255
-4.47957 -23.7929 0.65578 255 255 255
-5.88776 -21.0945 -7.70542 255 255 255
-3.02775 -29.7221 -3.40378 255 255 255
